-2.908100509185085,1.3375770108086793,-5.745256405312128
4.009092865373011,0.09154977464151015,-2.0202445580348365
0.6587980441618733,-0.8498285751502284,4.67824773562147
4.917943496774884,-0.23644989282651618,0.8443124882045865
3.0050177214484055,0.1508934387421621,-0.7431578318543757
5.592356183244405,0.4348888018625958,5.538240338950795
1.7306855329888888,-0.11048208633560108,-1.9864150549667308
-0.2109132599771284,1.33830245732709,2.5293381736358054
3.659020278159547,0.20212376064645277,3.413859432714153
0.5680217415453424,1.4922199876359175,-1.1036755747841838
-5.57318597358615,-1.158502684506955,1.6430764113325482
4.16326389090678,1.2293208023551676,-2.2474952466597435
-4.19505410635845,-0.6976623432716139,-5.534306150062004
-0.3890948082606007,0.1075051565507652,1.4867187134650592
-0.1821536021221748,0.5610475516231603,-3.054034442642416
-0.3152019430209867,-0.2640588807060651,-5.340924960656949
-3.762626154000961,0.1397737906647314,-5.053749282808823
4.388779484893719,-0.7805909393131578,0.5681226771297005
1.5620604148358446,1.3587971886392256,-5.41995065422083
4.445411159800425,-0.6932188368703428,1.7981392962831553
5.951857538772801,1.0413318833334069,1.3753721085418373
-2.9847662012875595,-0.1553143079803294,-4.176237312602053
-2.5711864235817883,-0.09420312664851105,5.871220791453343
1.425925733517035,0.15876588633026212,3.670265949642193
-2.5662912160314693,0.20434415447479393,2.2748417984438802
2.3888784894342567,1.1787263999285305,-0.26149922830589123
3.8128177692129626,0.9252120727106674,4.383439832861157
1.0752846774158646,0.22392531471890642,-1.8103479040632173
3.602587552940843,0.14344911476499989,4.719213580606979
-2.0305384273470186,-1.1974493653875684,0.10615868421675856
-3.5153555040469437,0.9153947997118665,2.7810578572809384
4.5940255482228665,-0.7934974284573757,0.5112310409547769
5.874409345746512,-0.3526927322812363,-5.629063790565217
-4.870213802231595,0.4181580462472674,1.425993021554678
-1.938172401337125,-1.2562096250944124,3.7106208565405154
-2.3863850166413125,0.6651386029346575,-4.725644380252076
-3.359977704946581,0.6093018132761059,-5.309615960319278
-0.8452147110183477,0.6908820032488481,-3.372475845779973
-0.9595262683759458,-0.6661612180251817,-1.9092477502055107
3.072806314227366,1.1843357340873455,-1.952019019488092
-1.5390493863092427,-0.40127445282792884,-1.819947386818468
1.3813354713452117,1.150562758200492,-4.467636166719021
1.7684395380098081,0.3321608475097211,-0.8693213585322876
-4.0892983158883105,0.2789282667073505,4.6323729614441245
-0.24519474383212447,1.3943547718717353,-2.7467407010378793
1.546194175197484,-1.2577246978076704,-3.8286433072317614
-2.8051506426659136,-0.006566322751056397,-4.0752293081023225
2.514332218888647,-1.3013974971560158,-1.0028376347031784
1.4190439607329957,0.9187677538651933,-2.571962557564944
-0.20079628123732185,0.5390502525156657,2.7025395654712216
0.1309208173077856,0.5367593929499082,4.153122692131381
-4.447657206094102,1.395631636691371,-2.5891182721884882
1.312629002417145,0.3919383039134843,1.7807389105933407
2.016401133642212,0.732951811584627,-5.501522292009101
5.066947271908203,-1.4974526187327508,4.984441145911958
-3.3185060709681404,0.1741753415526177,-3.267624106889447
4.570038463696205,0.8899427679880652,-3.67006584053667
-3.8334757246798135,0.15989091092050267,-4.583083505462259
0.15940101922757943,1.0394127398789013,-2.986528947099558
-3.7907904921830564,1.1463364903661626,1.6921762271876837
2.1450061291903797,-0.8472448541921225,-3.493042367406073
-4.670951297635744,0.25148562001396124,-2.0507372354445463
3.79257723527326,-0.4923901731844045,-5.8563866673070235
-0.46610303446560586,0.7478437424968498,-1.4609647610207857
-4.4764790937465815,1.1762564108728801,-0.12899415557605387
-2.44529866840539,-0.49109285812697,-2.5566038150309254
-4.229119703597238,-0.07040888884449137,2.7500126289396203
2.5046765982132086,0.29746756826871756,3.3089149162858966
0.6359303398676088,0.6391242476360568,5.011665173013874
-5.2090436097789485,-1.2709567144969833,-1.3967718092867667
0.16704506526436713,-0.691706376588414,5.33358285006533
3.579526999755906,-0.27780270194856294,-0.4295771952526488
4.528126322117325,0.9755898440795989,1.0156194962001095
5.0823631839426255,-1.1633371117642763,-0.6602840569508146
-0.5612104629869776,-1.0147722890389015,1.8213117973140385
4.7756865073379355,0.629173130410341,-2.021736436281855
-3.501770916490075,-1.1196794482028771,0.5686972732498479
-0.4219551019560974,1.136555718303299,4.669030468734155
-4.311649220118888,0.12606262338342233,-1.598511748709062
-3.784028519371281,0.7989242218668617,3.9265705701710836
-5.1584266878815,0.850994898685717,1.021328262013367
-0.5937860713820236,-0.4587745819498905,3.4801524993810897
3.1182993226714046,1.2248810783098154,2.9455421884724906
0.6513274470424175,-0.31204948214400585,-2.1661288947189914
-4.678409124552329,-1.163428571123235,5.422418080804032
2.8346644881640906,-0.313749905210158,-1.921301967916735
-5.049342014002454,-0.7689577803067897,2.6203879036780595
3.4573668960397725,-1.2963661205724688,-1.9722886797892265
-2.0205532247930935,0.7130834771212835,5.87330025974658
4.292450867704673,-1.4539270078757638,-2.7807538430092054
0.41841933667932985,0.512534865775244,2.9829536140978874
-3.22664032563604,-0.8149708264456166,-1.7350070986235497
-1.9831096566655155,1.449698594563432,-0.6097967530595128
-0.39762963169233867,-0.1526754871929401,5.7095217962183575
-4.274451028390651,-1.1253108244983512,-2.2898135355645435
-4.9666841457965845,-0.872431910239041,-2.446874716523448
0.6282205585386684,1.3679801561877603,2.431244604152228
5.216865550303375,0.40008760934466814,-5.935767383796942
1.7154732582925005,0.45985167220471035,-4.384517420292985
1.3836335250434422,-0.13852004177218258,-5.812684140352718
-0.7687904090139028,-0.788716125882643,2.0851702855806984
-5.980648479281747,-1.4632389455048558,4.042103472422422
-4.1488719301670685,0.13959724792689165,-5.471310242380053
3.1302813883436027,-0.9215885031471727,-2.460409608703355
5.422207312486208,1.2975521575455522,-1.0682184274902902
1.0313285922432023,0.048942371274729446,-4.467928616094419
1.9434762201865396,-1.1320432900818873,5.440768278408546
-0.899415328352636,0.06277723565190207,2.145401457458206
-4.32506036256919,1.153937757317618,0.9316340789276971
3.2236210635690767,0.802168465798279,-5.073086153217419
1.1866138119641123,0.3599008148558225,-5.739515238216767
-0.5296787517714385,-1.378991302591511,-1.203440958109308
-3.5448018926688456,-0.4804583394823805,-5.988833989013193
3.4839709949765503,0.0641718591809064,-5.792197224695363
5.744125479828433,-0.6014270897063132,-2.1331685412290047
-1.7814182581905564,-0.2660620141079415,3.2195343100122393
-5.390628787852925,0.26751755825255996,-2.6247585485698117
-4.756507165882033,-0.23104787400638482,-4.484369997719776
3.7071087293971168,0.09702580411211637,2.679567429108072
-2.1415727519974617,-0.5514888205161039,-4.629071337531659
-3.2808263883189124,-0.9737124635342747,5.695449466436775
-2.7785735728412777,0.567918161281245,-5.860340343398388
-2.8829498450550184,0.040793406039614455,2.7582942115963327
-0.42069290574239737,-0.3380807391677616,5.96552380121647
-3.2961707474996027,0.4924404358637011,-1.4282666241448378
-4.1450414055668965,0.7533384741337983,5.2471429987705545
-1.2490059284530357,-0.8114871372295968,-4.55531654061002
0.8363212254544656,0.8361786267465443,-1.8973979540625567
-5.2167731309857786,-0.053370699900731955,1.0564541784162635
4.425414970307372,-1.240666860153491,0.6113733935968231
3.2556790101689703,-0.7023566471154536,1.0724584916778834
2.632805631927921,-1.0409401939782175,5.843075535326328
4.503895353864387,0.5251578563745474,-3.2119353864278652
3.6302053229151383,-1.317148770499498,-3.9755187481233976
2.6055270908407238,-0.11884917679213114,-2.2475800099779852
-2.904936101137376,-0.9586884103382177,5.841793512113538
3.264706629503907,1.4840383792548693,4.5577797143633045
0.3908200742921428,-0.7359243397309759,0.17559673616471017
-2.7093726713154074,1.2021593215877782,3.741791680637892
-3.6613068040250685,1.16288221750313,3.0242804734597417
-4.677433995586128,1.0764236248250505,-3.4756842517701507
2.593769104473793,0.08070500684440374,-1.5463991122186336
-3.986187091921624,-0.7291312895459032,-5.7847577422213075
-0.3027355191630354,-0.024822692239811817,-4.260329284427019
2.5043061713359815,0.865149440610149,2.555535845656447
-2.26058360816544,0.7176308881392002,-4.900140355379778
-4.229313576060093,-1.0418202980971265,-4.943513994016134
-2.208111295583912,-1.2892222967460425,4.995126518509016
-0.07265870911265271,0.40791700951893617,-2.9724439848174127
-2.169066875779768,-1.1894758121859732,4.848602628478586
0.0031501024474618333,1.1954515442116227,5.703649983948461
-3.1104282807916497,-0.20529787666994048,-2.8294933485191214
3.9767662973200135,-0.18725291235157782,2.124622448568079
4.658000614088612,-0.15675797335972108,1.0975932475834291
-3.522247420734387,-0.33966676097017734,-5.897492813236272
5.6843747966126035,-0.5020441429053717,2.884187766250017
5.59188947521266,-1.4264924585055958,-5.788991713431689
-5.337394730740224,-1.119833555319509,5.635282494901778
2.7891934237497633,1.0126382123971451,0.5971268560777379
3.3537794213705716,-0.4920413741566869,2.5958564109088087
-2.7787058828604025,-0.5773239565262631,5.652348417258121
-3.052877095345595,0.36367803683283517,1.0613209708097013
0.8554732682142685,-0.08493256596187515,-0.8053693907371322
-2.803618877490242,0.8117526451136277,2.0625986845801894
5.149914466289182,0.8446278155095572,0.6559942816194884
-1.3908479414954424,0.3834431309050972,2.0817312337911194
5.011895635227766,-0.913753478671202,2.1801269233446376
4.382679672534682,-0.9737710876983532,-4.796880872041173
-3.4431584341031307,-0.09363650108465915,-4.478295016907122
5.035529398263771,-1.4622475139405595,0.04933528817301358
3.1627601570591786,-0.11881010774592782,-2.002038447642882
-3.9713024411892457,-1.0819435714732624,5.503241385908344
2.703210290009684,1.240027192586982,-1.5352545573154748
-5.470161896685802,-1.4297826603092756,4.010563907714166
5.444004088358138,-1.4155470500059981,-1.1191068642630082
-2.815710972749238,0.5992592824100269,-1.2392786376499565
-5.587352116069598,0.04722280561399561,1.6736537183157267
-5.6426925337804725,0.009328030326441361,0.7138348490829536
-0.15177511659470078,1.4643706662589193,-5.404822044267716
-3.608641282895916,0.22929528637776198,-5.672961682790506
-0.8870359003915169,-1.3016760729829409,1.3577378999991918
4.023426732622347,1.2762167522412695,4.256277333102515
-3.9719760605766106,-0.3733622247804411,-2.9278265894148046
-5.043137727254271,-1.1208404270042187,3.9204681821620007
-2.001235603103036,0.46859528569902986,-3.9517664063184945
1.1663161774458608,0.596833878701927,-1.965498465364778
4.149177939422785,-0.9636491181481083,5.861113374812842
2.819598691117834,-0.6448463227923872,0.7109651525870415
-3.472640370483067,0.9454578985556674,3.4618237666931346
-1.0402223818912617,-1.2723377030095926,1.8238277458946026
-2.1706325564675613,-0.8345530299962469,-4.408380672771935
3.098409743194038,0.8789663728519783,-2.5118795032029415
3.622963250377598,1.319006489920168,-2.3072484502458837
2.1311288869258664,0.09200419317544206,2.921614390527953
-0.7754625283345007,0.0861569986389219,4.469895579161173
2.2503142795202393,-0.07311607567588907,2.1281512284186945
-1.0264336655189101,-0.6875000864927628,-0.5330695770286749
-2.9319869714873894,1.319064798676921,-0.5480855424563291
5.404898806717883,0.7292908420434707,-1.4420284862748716
-0.11978872215227909,1.2051018095211932,0.4216899720250611
3.506339772667392,0.23468355111705774,5.204465255234457
-5.730419437344144,1.383600106379502,-5.700929487045048
3.3165305068732227,-1.019977896059539,3.1410378658203744
4.644859593443824,0.6440770980483221,3.23209897924594
0.3989061659889561,-1.1773219800070862,3.214550607160284
0.3682395277697452,-0.7443013822826939,5.180354146661136
-5.713909390692156,0.3959766062781145,3.084566547912745
2.229441153614273,0.8989860455581873,-2.623165068382604
-1.4138623406402857,0.4800073629084214,-0.867718198452434
-1.9912716853138521,0.856740308166164,4.132615123217828
-5.329076450558118,-1.0949507275396495,-3.057991601042311
-3.4340374874317403,0.5444509023862665,0.17173215998590763
-5.954285973733732,-0.7813835529445423,-1.4020538246069112
-3.2182212647492334,-0.5210800996555752,-2.1965591080084144
4.711453902659576,-0.26874227710317955,-0.812214998375933
0.1410351163829766,1.0342889972875913,4.204651734016643
-1.4339969042717478,0.2807362665664699,4.453657944484521
4.526708470592322,1.2755872388407847,0.5377055129296275
3.1065713237523482,0.2551903452821034,4.05789099846114
-3.7129570181987352,-1.4172203618309367,-4.763397714677105
0.8521245785636538,0.4675775783651974,-4.14644519045291
3.236737443387023,1.3795755812646582,-4.579856974382026
-0.29578918677008126,1.3748825560650646,2.4605386154944746
-2.385330781591652,1.0214791799902536,-5.323802341649639
-4.880586053673034,-1.443014343035782,3.4596872871713575
0.39890350794749274,0.5163887187944645,-5.938485493569338
-3.2515152727425343,0.5349861372432496,3.580521904956857
1.7703303751047468,-1.3602260802760775,0.7622983916411705
4.487275900510598,0.9134561060849617,2.891140050936876
-2.9395242860513333,-0.5437094653562865,4.696845416332993
-1.47252998649192,-0.6339277519217331,-5.712906501402495
4.364962399477044,0.2797117182973894,-0.49768508311868764
-4.972785839277117,0.8345440463857599,0.5195316010612059
5.4206640676095965,-0.8672586270942614,0.1157674089763967
4.567110273816802,-0.18015786394122557,-5.5333296493251005
2.629380775452711,0.9817017419010821,-5.103811973888136
5.357462071062404,1.0192231388993012,-5.716773937066378
1.6920764090013058,-0.2480168174266839,4.662390607680891
1.6095343747642783,1.0046714682082798,3.526630161325272
-2.3361430880043863,1.2735910234637506,3.663330348447838
2.697142370235026,-1.4102773046547363,-4.549934271133389
3.9669486082448095,0.3391056495729208,-5.192194698524709
-1.3937264164003675,1.2336388703361423,4.554954252190562
3.8441815725850947,0.3475295040574924,4.302884045599802
2.3162020605856473,1.0639977335172874,3.0253521998265196
5.059842424511848,-1.2586819633959894,-4.776230459934791
4.3784459954726955,0.7362322160470209,-0.8532174571100741
4.126865439734253,-1.2625253491573232,3.8999318575119
3.195382964841169,0.1488059758642164,-3.993458441869256
1.269754492635113,0.08478480678104039,-5.831507439919227
-1.5850210217604612,1.1403518190734818,-1.924346722776333
-1.980346914660302,0.6429049899405381,-2.952624427351837
-2.3195869041070742,0.9490308203870979,3.4850505180175695
-4.1196306904627775,-1.3339163304591168,-1.0354534805526336
5.99022363048487,0.892798852989845,-1.529264959948665
-5.978790267629517,-1.3507999902967975,-3.0317848023690854
4.434062065611933,-1.099443047321469,3.815873332964369
1.4749695302805472,1.0775716163488211,3.9138508327477997
-0.8659115383780698,-0.9522017455060321,2.6917760754644107
-4.252115880462232,0.27464792715745445,-5.621581240797029
-4.351598562895676,-0.3314971944445029,-0.9453519084388917
-1.1783549576250403,0.9043439842835066,4.96190352430448
-2.83095839899143,0.8477130503363726,-2.723401804864122
2.373115504184497,0.8195047607148953,1.5348571118155725
0.3304189369250441,-0.7802974992591126,-0.17642275892830028
2.1361211262123767,0.5903676401655544,4.922961347697797
-3.4589082545352587,0.12073964790600744,-0.17210621421399885
4.074194465766592,0.679081999516923,4.128629248259909
5.542203520739847,-0.9206640085757929,-2.6400805084807177
-2.478467165632637,0.5621220379496008,-4.659703542176754
5.977994117792424,0.4768805475753122,2.902804185145044
-3.774593191258905,0.3785397901015397,0.27358816622657933
1.3062770747389312,1.1538146518950265,4.036517728470679
-4.039274530840913,1.3655045074298537,4.052565031500929
5.714059184725077,-0.6779512961975602,-1.7384181620704773
-4.850114842970179,-0.9790159136796461,-4.580390872710821
-4.37193166831739,-0.46616369264479496,-2.9577644023396306
2.127465431654686,-0.5084535792607461,1.5127132918519743
5.006845415482214,-1.395633419889974,-5.203832011573577
0.6245820268813977,-0.4698699963894972,-0.2958426700254595
-0.9181354908872938,-1.2050076055823635,-2.381476905845804
4.755693547168729,0.7054880513078547,5.89390758134309
-0.644676235694611,0.3908926440878777,-3.8577127899937955
0.4044200955740509,1.1917351221906443,0.9687147425878315
-0.2914833410686901,1.2576768383117312,-2.9498908914164015
-0.983708143491425,-0.08974786548730918,1.9417737016621128
-3.522261056276188,0.4639707164056168,1.2803451551714948
-1.5025750932741637,-1.1475676396978662,-0.5985882898413664
-0.10066287623877557,-1.1877460082007603,-1.1052469439892327
-3.130327488128822,-0.9254209356037163,1.1078016120953187
-3.3082971857074024,-0.8459540608113016,-3.949340130070151
3.614089362308329,0.9316316873524935,4.21022606561889
2.9064649815596937,0.586535446401554,-0.7185672844564905
5.064960578869382,0.26225356788041543,-0.9500417251631763
-2.7490759105379885,-0.10059678385527793,2.7569843441363915
-4.774153319692895,-0.6944013855174096,-5.42687031142696
-5.223556902399802,-0.5347487131854208,-3.5956163563205883
0.8959998836963674,0.5085151511163182,3.520554898388351
5.5324171920793965,-0.8964612071306147,3.5759209617035346
-1.2085323199199998,1.1183153672043598,-3.4020532076821786
1.497791661311486,-0.5228194891575568,-0.9141213478272352
4.233053234050111,-0.21636972190360826,-3.6779452578774077
-4.992768389866115,0.7660379453601771,-5.862868747227939
0.8756723567444578,0.1444845032649349,3.743845895327304
3.239500449313038,0.09517025912789379,3.2866369816385177
5.485722890663807,0.6665326497284365,3.706842809205341
-2.646315249088136,1.09254093484043,-5.706118600227176
0.5791330128283221,-0.7425261645232658,-5.24511095279852
-0.8632818636506352,0.7646327425049222,-0.259501193511924
4.969082028754055,-0.46936737123711936,4.19054167459549
-5.074208950463695,-1.2268787393836726,5.923373751524817
4.382995134498158,-1.2701883235944993,4.657553879995643
5.944890675974847,-0.38656444066435514,3.040505878616006
1.4057627742886467,-0.5502008742919375,-4.723905966046408
3.5765309985494174,1.137836653900938,5.3507214820795195
4.974940525538825,0.5745091090704184,1.4679492943288555
0.023065790461282987,-0.13968709879790975,4.427265241437816
-1.888332671986344,0.20946167136617477,-5.502244914354222
-5.003908743213284,1.37849804118523,4.203971236848455
-5.972575285719525,-0.7102698247463259,3.3761673992834336
3.6295572793845086,-1.1544266558313836,4.566598868839559
-3.5574041620285297,1.1490865785542184,-2.9272331543346897
0.053610553210393874,-0.021568851528059207,-5.838173408715901
-4.214390562741221,-1.2025626076286795,-3.811060423276489
-3.1763271554524453,0.7404383384657187,-3.8977353463066753
1.8416892729839347,-0.7287630222427018,0.210055866719979
-2.852091186618876,-0.18437109285050024,0.11312161233768947
0.19900375712588048,-0.001945971739215402,-3.398225227110762
3.922306286585929,0.7414481500432997,-5.375930470057842
0.25854723696711623,-0.2006151846340647,-3.5403948049128493
-4.284110220936984,-1.4981185147800735,2.4227015570568184
5.859657098336484,1.015959989964295,4.738090469972153
-1.8220110771318208,1.14362595221262,-1.9049713313822778
0.6076107142371772,0.6463988311683817,-5.444118269753524
5.44052978073568,-0.8781196781561308,2.8532851241827064
0.16408983134484956,0.9250709659461642,4.654742096545236
2.269946924223479,1.2492655745480765,5.68391793919589
1.998447965832832,-0.5310118752617474,4.198207755880157
0.8679492435865725,1.4573203280957703,-1.324991356600128
2.6799376066770115,-0.9090924161495738,5.860633751582416
-1.2396325787812756,-0.9129179743195202,4.5947421289750565
-4.234420676608774,-0.20834872089338896,4.04378299360204
4.783126707540244,1.4703085380670435,3.3060168489764425
5.518116966988918,-0.6949941624735319,-1.5342652605928375
4.203901237957069,1.3339224318834049,-1.1728172959134504
-3.9804717661655835,-1.2388167587403696,-3.6624006306594303
-2.1705283242148283,0.12050200578693326,4.447320754219778
3.753100198529669,1.4756618714997103,-2.504739561572027
-5.866711959615337,-1.4452299272036289,5.34856604270856
3.0490053001258968,1.4194453923123733,3.885979945082571
-1.564991106550079,-1.2824450117752635,-3.420041960731174
3.0519192471200114,-0.968753601299728,-0.2067502259661973
3.7644814104093065,0.24702768321699242,0.7232824607278339
3.7354721441064758,0.26690132741253825,0.01653157954924378
2.5445020299208547,1.3835552398964692,-1.1811127498080403
-1.864437074331959,0.10177221746093212,-0.3462448575649848
-0.4726461981302723,0.5734233343086843,-3.5343394775208714
1.6699558137144415,-1.4245576073690782,2.470110779680141
-4.153412209426138,-0.3270349721622545,3.3791740439085878
-0.1015843119855262,0.8075519548402701,-5.8439823347167135
2.17644471458339,0.7680031524118984,-3.6077612940180575
3.8730450883493805,0.9156712463437486,1.9134559505002766
-4.706125925982107,-0.1634713661926006,-0.7327477622190237
2.1539718142939037,1.4794316188963945,5.193428272213929
3.108681937292035,-0.6799302622277974,0.29583510183273987
0.6751772570763084,-0.27093229229749616,-0.7511483177577336
4.841424118015899,-0.8537241768387293,5.739290028348476
0.46160957669807345,-0.11930507624225761,-4.696804913519809
5.280325896929643,-0.799760368108875,5.938647639657502
2.25649200021717,-1.1557809000752255,-1.7094311018742658
-1.9573903358919686,-0.13531145774862097,5.730980815266044
-3.9831251197610635,1.146380798950509,1.7663842243808006
-4.10038343857066,0.9950052799557341,-0.6834165911531649
2.9589730426230947,0.2679284697788491,5.0594159631784805
-4.862012332217537,1.3122384881260851,-2.5246409344585325
3.1082336559167114,-0.1317454162127918,-4.111058697492812
1.7564742585516395,0.4463308955167764,5.2735207464387095
-0.11129925487533754,0.5964316384816875,-4.384059765156932
-4.230095926218219,-1.1313563592870952,0.7389887543006157
5.849616584214713,-0.6958119392721109,-1.38819850387459
0.6926355538232745,-1.078396192526808,5.079146970086956
4.443987213328736,0.22628650813224027,-3.6708162016950383
1.8011266456099433,1.0311165267459987,-5.7454502289475045
5.613130937008487,-0.9571699615019732,0.20183284961370873
5.058976774770311,0.781685654837208,2.937889414860962
-1.5909330399876431,1.0056378919580506,-2.1576635071347066
-4.1048911939989985,0.1952285826964395,5.811608034683726
3.6046988131124778,0.5324466417783822,3.269483696676488
5.978973013094947,0.0933668096070921,-4.631489343168698
5.618970095467475,0.8409303000607058,2.758492253989532
-5.840073732840912,0.20395986554035472,-1.5970740777170285
-1.6634113727110158,0.4385612434614865,-4.546106694775567
-0.313334258028501,0.9320762383916219,1.3598136958146751
1.5652825005573447,0.9630885339551893,1.684592735178052
-1.4733146738240777,-1.2801156148707902,-4.870888102557992
1.8839018777947008,1.2308924780327453,-2.5265065909117346
0.94962120483655,1.3476735384522929,-0.025105388510125337
1.2886038358476384,-0.07257806090322028,1.2411890941595676
-5.350858238034233,1.1719090773384533,4.028892951447041
2.844566407011504,0.13301887266781431,4.014434578620978
-4.531504900453735,-1.2829777150212256,-4.819778997400733
-2.915064790841829,1.0628069836402565,-1.8820078018160409
5.3052859656014775,1.1724450748323574,3.392486100060072
-4.319405223675284,0.3094437845050715,5.948091008238718
1.3183929517592894,0.22394236294481784,5.480078146686008
2.3510314725108223,-0.21412493753861517,-2.544318042802908
4.61609001118345,0.3475580223900443,3.1816689791140877
-1.2926483860888665,-0.0404047521894535,-4.702299151896311
-2.861777751268081,-1.0080488709116793,-0.6315335174983563
-5.671927926764152,0.5164467650765068,-5.1529341032835525
1.5317269568814211,-1.2434219037136371,-2.331186553946751
4.733868638905388,0.6272692121149182,4.194815183712375
-5.207570918229763,0.8878627159151713,-3.8777873891967882
1.724007402727758,0.3855119581762647,0.5607558546727667
4.983021742168241,0.27681418410539216,-2.700431203931998
-2.1032984287365735,1.4842461239901157,4.893863127826135
-2.1596378533343463,-1.0869822088134264,-2.3271101298354453
-4.492911066230914,0.7162448265348056,-5.821507528960035
0.5983281705129002,-0.6130948815021322,-1.4925726747881862
4.960013987581311,0.310769738869209,1.5335583322447093
-5.935114374070437,-0.6445805128836554,5.260326135975207
-4.848062973442616,0.635682872934384,1.5778373679616493
5.077552975526016,1.2132622955546726,0.40457098589013896
-4.93061907082292,0.6882236323619466,1.6820752701517394
2.747078270606181,1.0503805559731978,5.027944894165099
3.7742473664366774,-0.6214865009118289,-2.568865930544975
-1.0829974665306663,-0.6853939331448592,5.358357478870907
2.687877628714226,-0.10653060192263908,2.74012724182856
5.363108368441713,-0.1726561451013393,-2.5975507717388355
-5.290377953517142,0.31672111409396364,3.115152719211217
2.4092123235695198,-0.6801505457218274,5.279691343883163
4.904578883657948,1.3467221242370289,-5.273809887336956
-1.357311997814036,-0.43289578955652575,3.0950001850396003
-2.740095335237958,-0.19006981833972136,-3.7604197647575215
2.5086830824453834,-0.6752361236385187,-2.5956754275016585
3.426941667530933,-1.2556070486458992,4.33285677863617
1.5198130576910192,0.5639298542809517,4.412139659610183
0.5696351681027387,1.0652203151667101,-0.45783976100819324
-4.655251201646364,0.03470937678355934,0.042875728188040085
-4.120596911238216,1.0926208027597362,2.342033446149472
-3.893816483931188,-0.48012293651048865,3.9203388693888463
-0.6731578861249421,0.7454004692157938,-0.7207962975549425
-4.698343089005283,1.0155070991034663,-2.8127583969825203
3.0934095030468125,0.5319489575604837,-2.489579991935815
-1.2675036889587084,-0.44095391750313606,1.4495664597819307
-3.5593429784364634,-1.046982336132868,-5.70609967577686
-5.889294758555179,-0.2916917409180333,-1.7388171092887168
-5.3329644535203204,0.5716552463957076,-4.404459127308319
-1.4099948533360882,1.4803426015195025,5.794345567853073
3.582384648688489,0.005441047588914838,5.006881993252975
-5.341970274561662,0.8855299738551579,-5.024646974847438
1.765173471749712,-0.8528958375140877,1.4172377090328254
-4.054313053127078,1.0956081939958509,-2.3289681182166153
-5.958730912146333,-0.5927282564607969,2.7772411061604156
4.7088904647231065,-0.31767871368299216,4.982243661686777
-4.557553982893925,0.9933589127277749,4.244973661810558
-4.161268101743911,0.48783706820625206,1.8769473838811273
2.676090541958809,1.227803417742079,2.928802154861488
4.776869925088043,0.6796278389816255,-0.05083440879429446
-3.5510349977262137,-1.1622242600620312,-2.9970577456888576
4.041059591922853,-0.11051913081045006,-1.282299305190608
4.406562796466929,0.4635426128628939,5.782893311035689
1.647916909468222,-0.18012640288733284,-3.2913311280616435
-1.7633303505383235,1.0690480095687516,5.3548032319497665
-0.7124152397403751,-1.0303202592384886,-0.4814033315228752
2.8699680732386703,-0.28680885257239774,0.6809493161822626
-1.14952003817708,-0.21717590772543138,0.9036274287026309
2.0725705106825085,-0.9679297457878079,-1.2093975012462526
4.595176521674805,-0.5773603098061119,-2.0415695227220643
-5.975930667545857,0.2480020177708946,-4.71466224340441
-0.9092893119299221,0.17845895787138222,-1.5207917293649
3.143789073536947,0.6442468015101337,-3.647646784943625
-2.9076648698130927,-0.024711376848543853,2.0042248111331613
-5.502563568123321,0.07452006661975097,-5.347441995608811
5.833713643275818,0.9582425675071748,-5.179936274311785
-0.8839690958693387,0.19548114403855155,0.451942550905847
5.754987674025028,-0.09846851069114715,-0.1426733027575473
1.1258217446388308,-0.46415544222956684,4.982444851421011
1.1426745417518305,-0.1720109610740983,-5.286764181374965
0.14854257378591296,0.8646836763926093,-2.2327792640426627
0.32267858365327307,-0.3454137503834278,0.6987035653486675
-0.40475927721721217,-1.4570620207596865,-4.358887479515513
-4.667309908355244,1.1043577350816984,0.013869889381254552
-2.5789427399612626,0.8663932934421879,1.2102511045141267
2.741894326701402,0.26117319126340655,1.2537513287466258
-4.519654750346671,-0.10476908017154685,-4.138733699929743
1.480551079162721,0.10857703364831073,2.228926089717042
1.3689027568666532,1.227930091650535,4.727489864598489
-5.861800489937278,-1.1937109858693373,-1.9464438475210457
-1.3323357087583467,0.04217317741088289,-1.9620489493720221
-2.3164433810733116,-1.0207464772332537,-3.712354703653084
0.6485402462221961,0.3404186149231101,1.5045468272371574
3.9318065029581852,0.8813382308344027,-2.88343555159948
3.9549177809422638,-0.12602622744133374,-4.517871589320968
0.1842357040197662,-0.7441260683951358,0.793340675157058
-3.510795433284206,1.0069404185145219,-1.4612174661624202
-3.2351745595416754,-1.1190041766798688,-1.0928546878256977
-0.1995499219628698,-0.3690151259188441,-1.7504362065135979
5.820442740601488,-0.7783413624570543,-5.133796696313759
0.5263443320904742,0.7234892789032599,-4.431511270997212
2.805854574892548,0.15055476555853664,-4.436399736687651
5.915368618675274,-0.6468219359910067,-3.400468090068751
2.5816444895006185,-0.5468442377142931,-5.800422707630931
4.0692129003061694,-0.36310826942873375,5.7397018727169
4.217772516285631,0.4186633794876806,5.062980607199787
0.6134071754893151,0.9400644352087886,2.2899335176056255
-2.8335027295730852,0.28228942601890594,-3.514094065666249
2.4203575921206735,-1.1334165861795749,0.04135685942084777
4.795940427790871,-1.3323171373351934,4.218444972248648
-4.352225967890754,0.3571394527929832,-2.706932919358793
3.956866196972056,0.7835631006525166,4.601699819571937
3.9761248648866747,0.13534808332144888,5.061136483996519
2.8903578414014444,-1.3431900284947909,-4.571573338786372
-1.9965724226485868,0.41717838323473444,1.222424023880774
0.6584602594210072,1.0481987753208388,-5.5571145082940525
2.0023425849864296,-0.5991101785467864,-5.037496049703021
2.4635080535891465,-1.3651874603278729,-3.627044358666038
4.090065129462401,-0.33129154895334234,1.1046581968874776
-0.6957711002325979,-1.2811236536999298,-0.9362297282063796
-0.5884777366798524,-1.376975026359868,3.2527964647955354
5.818186324524026,0.35605386774207126,-0.6578165181216722
3.0666127614707612,0.30296886149954005,3.492280091809752
-4.764563420174161,-1.2106613478771124,-2.9142524676186525
-1.7210846516942926,1.4350375555131407,-2.933258858989783
3.0525999686978214,0.3277309306927392,3.8354391289250422
2.649930615039633,-0.47577816192555344,4.767360043534431
1.2551009334565393,-1.2476616288757258,-3.5155031696661054
-0.10476695767272659,-1.2420167411117686,-3.7280542539634323
1.5018087390856873,0.971942182050594,-5.301940664170145
2.9567497445700806,0.921098427898106,-3.1567618326897637
-5.594909796661733,1.4433762647364357,1.0024390148097684
-0.8230990722217264,0.046911534825975876,2.351035741234501
0.9462379073352096,-0.4060321196552781,-5.743762081795175
-5.5706618018339835,0.24341013209889084,5.437727696896696
-0.4350997292258594,0.8167596604356033,-3.1521742313303918
-0.9598367964738168,-0.9626722798794053,0.15596636027590627
-1.2582196508375567,-1.1968402640728284,2.2545159903368432
5.035470610279988,0.6049530287911797,-5.245623153441784
-2.250673191626405,1.2694370259698888,-5.958545532813387
-2.291160158218042,-0.19528443073018087,-3.012572709644579
-5.3119061417232984,-0.7876090874568982,-0.2404395920127298
5.697099143585984,-0.7860513696957595,-4.734797620461365
-5.7662202913100185,1.0580945327053635,0.5483954560681008
-1.2845757585382405,-1.3000930720848896,5.157875270737016
0.9425449717061873,-0.07803923994644713,0.2752262658758049
5.120500379079926,-0.2429984232288147,-4.660521626423888
4.1431732371539685,0.5659512574262306,0.8913677163874105
-3.160262591017891,0.21069391124306014,4.079186667103539
-5.103164681557755,0.17835528489436148,5.3411872703864525
-0.8113074029441165,-1.2779365960160267,-4.715658286256932
-4.225741206339359,0.38745545937320536,4.227889902648478
4.463780207665229,1.4151233073230265,-5.169626249692284
3.862285409762686,-0.0024846753716163406,-0.4095107036527246
0.7590682744484232,0.2418160444826376,4.998755853692703
-2.38434367888623,-0.22851966408600233,2.9096917685279102
2.468191316433934,-0.9739655620565494,-4.258151904840018
2.8335950629163484,0.5194499298570419,-5.3554121283227625
5.768470337523924,-0.23941633190806755,-1.196448227764039
-0.8687229827709633,-0.6744871147245517,5.263478987254844
4.886332707343552,1.0312448899778222,-1.2057311475839398
-2.3814609421916253,1.402553161564175,-4.271063740205099
-0.1549659193917634,0.3605241514662578,3.0031753344138785
5.091049395693693,-0.5561716603927611,1.857721889055874
2.301605197579544,1.1088513425865179,-2.213937817683035
-1.7888382678072343,0.024982548372393776,-3.1648964603236385
3.5116502797403015,1.3895492755635335,-0.7532733740042454
3.7524140694751402,-1.4038627144822426,-3.7098825720677984
-4.167259300383829,1.3191748838764905,5.4189382739757885
-2.6306100267467762,-0.21435027448689659,2.3545454638345404
-0.5686869709528795,1.19237662512554,-3.5383535599164166
0.33212060437566926,1.406372529105623,3.656150210177561
5.157638400724258,0.6013034560269199,4.613976405862267
0.9501639737470651,-0.7850198613933828,3.926384331102211
2.222176168818617,1.1384703776580558,-1.3809478618266064
2.5897859862968833,-0.690955362617023,-2.986771120488241
-1.65699474909911,0.38354696001183,2.4875874939389107
-4.285736306362509,0.9542706907082561,5.123434422536201
4.064616286075017,-0.28144533943312977,5.961344114604692
-5.692824700726003,1.3416460760335358,0.9775412923720346
4.131760723524849,-1.4682684836452482,5.650756217006247
-1.924042739289872,0.9079274357094929,5.593822975390651
-2.034921356375723,-0.7030458218535427,-1.3530216166743951
-3.322036020886389,-0.19974161237716181,5.770775201205211
-4.4744843025176895,-0.11635567818516268,-2.231750291441546
-5.420825582411893,-0.19607175005582977,2.6446610390233136
-3.640873142443927,-0.27783605968429925,-2.932388841059513
4.497005282126459,1.1927627940397194,4.263344694354171
-0.989141070648909,-1.117822508444092,4.156789065257481
-0.34716451025439277,-0.585491310530747,0.17658862041083978
-0.011299034381265116,-1.2720460238385234,-2.787620616404755
4.073693057576346,-0.942561868171568,-2.937730586970215
2.0666308359051815,0.007950955452777464,5.32533089043795
-3.7598204941438262,0.9598046673125786,4.183171472083817
3.7388571081140753,0.738722493818539,-1.1545522926761524
4.676873373419797,-1.2831281069317608,-5.418560858781003
1.0940338617486178,1.479341789438573,3.7328851716661777
4.373420997341537,-0.33898487741797,2.838376947791536
5.886682599876588,0.13866851845622596,5.303432171890325
-1.2534006699365516,0.03621233778050459,4.131102480132981
-1.4121499004674067,-1.0700727690220466,2.114989086772894
2.013434307524843,0.26326081774633936,-3.676948203116924
-5.323006635303299,0.12005718188047121,2.592260871686337
3.8755249518375994,1.0876607233855387,5.868594484407723
3.71489245968357,-1.4914206723392693,-1.0258768974842578
-2.0363412220154826,0.6007010965597859,3.602976799498416
-1.8605964095212482,-0.5244955792466551,-5.826913681111259
-2.2438090858840125,-1.217819244660078,-4.24424677515216
1.4574513686948691,1.4235211467194375,-4.379945988108742
4.643428044561183,0.8097221145113829,-3.7653939891874093
-1.8982056020433156,0.8635280168045734,-3.5254328093424756
4.897318697797456,-0.20303404152883076,4.101820609467826
2.0308311432972133,0.9873465959948207,-3.2600119066758766
-5.148383547485231,0.4485439219851477,-4.299364682056427
1.8363019623855728,1.078741642076218,-1.1127152040463884
-0.7860616069532043,-0.03857831362617725,4.197465559011384
3.994639717820924,-0.6229779183710716,0.5177106711572872
2.839122123204689,0.12932945561297737,-5.325014648726338
1.9079095231880219,-0.5356549040366028,3.2242733033865
2.9712464146514925,0.5817174744670037,-1.8922481691848514
1.9944479737144434,-0.30473142000874365,-4.183958287433511
4.026527009227772,-1.3393743765656974,4.860904874183543
1.2233470023241928,-0.2360896871645055,-1.2113139418576804
3.7625231495441707,1.2580071472875156,0.31754319213049786
3.525330273689118,-0.4821658326764038,-5.340599182816241
-2.163488496685656,-0.8098977254951749,1.7904818380652978
-5.481216984525718,-1.2366203391960067,-2.465387190048767
-1.9109338743647033,-1.3956339420220059,-4.4963345777793755
0.400401235811799,1.4052560736609854,2.537925070713708
0.47542852304652783,-1.137770844479043,-2.425336226931264
-5.121539749632167,-1.1412405991197798,3.8169561538798114
0.6876170602009193,-0.45611597250957026,-2.9290676863352445
-4.512374229148402,1.061221669462125,-4.237302102920587
-0.28278686316749635,-0.14938726161651728,-5.948513575244316
0.8975820987489849,1.2293021450627597,2.076992125493822
-4.821343876229881,-1.3191814016203973,-4.862947001913055
-4.1990296841726895,-0.32966289737266896,5.394578709982206
2.3238771722964433,-1.157512696405615,-4.245820839632228
-4.947398829901786,0.6468768136796208,2.865800184957104
3.077489562817675,0.15127821186872614,5.251006566657258
-1.4318094479168977,-0.8175081101145308,4.1171200076315415
3.9228120458566345,0.11129332087071164,-5.478443575099589
5.328663803016534,0.3612875733941907,-1.3614007234468453
-2.024831400607226,0.38193452866336375,3.243237215565621
2.1686005088899147,-1.2994140993394652,-2.2216059461334368
3.3220129374570018,0.8435502004247262,-0.38908875466199966
0.2037526851726561,1.4840606374901384,3.937318585664915
4.669686596435106,0.723207171855607,-5.775716198554115
1.3931287791501816,-1.137478677478592,-1.6933150830889314
-1.1326405730196871,0.88179159460626,4.32937765621433
1.9286444809820544,0.5412055496437871,-0.9772974139221517
-0.5916968611325224,-1.4337226477691667,-0.494704741309997
1.1586655933833274,0.9364550433696968,2.596251908914166
2.544910074764166,-0.650134436999085,2.473148333479264
-4.788668336208463,-1.0063100049915803,-0.07875551688452376
-5.636053036562313,0.16310513114049718,-3.2260489649900363
4.731113074402568,1.3699039007560323,4.85964362599012
1.0813816944340662,0.7886852477164288,1.1609887984894476
2.5617611622219822,-0.5858051046360403,-5.063112723277612
3.0590617510778966,0.40776875583994054,-0.16826604635559583
-2.3682558768198794,0.564564299683437,5.260965127403692
-1.8738945436620726,-0.8023454759545083,2.4586135103743327
-0.16127966792095272,-0.39002027619268853,5.144033809481137
3.866797858059609,-1.3942555102894638,-4.449948448723152
-1.3028379967638948,0.3007054552236623,-5.842853360462419
-0.6499191557124906,-1.0028375237552838,0.9745193031627686
-2.7595699691097093,-0.07567677599775546,2.666894771383202
-3.766149788599093,-1.1765510691568437,-0.882689553985414
3.997610183466108,0.32574091609523226,4.214369402968167
1.054210247423856,0.5363649508955057,0.03347922354510402
-1.3052014673132577,0.8670789393870018,-0.19218108374709963
4.266323700409433,-0.5993360885511577,1.7439456069067614
-3.724931636456442,-1.0572330183613823,-3.8452840282283516
4.77003429856266,-0.408812952633018,0.7337126296076697
1.8035333187249059,1.380006009903643,-1.3613885027799313
2.591392992222316,-0.5025340240232424,-2.4672663275379607
-1.4081836526120863,1.2247680491465736,3.5526916116844056
-2.733359281535488,0.11681472149847583,2.33366576739156
-1.9441402292811008,-0.38254480026472537,4.727521412003968
-4.9509457291776595,-0.26869823714268426,-0.5983927765439647
-5.320344258863312,-1.130299451834511,3.17183872938147
1.3542965844049686,0.9112539790605338,-1.6736109495188698
-2.477305608623332,-0.042286916676281816,0.4353056294182869
-4.649402521179809,1.0666720727455363,5.604856455122805
-0.8169255041878731,-0.35566352099119536,-1.4848918735133285
1.6589079156475846,-1.3302456626381227,4.864593643755363
-1.7596469334686535,0.2209730818800506,-5.927353620090493
-3.496969284466638,0.8608110324507967,1.7252379108665803
1.2178242435513926,-0.04897392395333333,-1.600586734172003
-1.8161855933166837,-1.4009230282437732,0.5241769932429161
4.367040901841154,0.3756447883225329,-5.113159312319016
1.973612015618051,-1.4284391456081633,4.738263344538719
3.701939509491874,-0.36221836703309984,5.206046720392811
-5.755462357051058,0.027486506882112405,5.676152589040127
1.7033036999719595,-1.0641580268190869,-0.1739659941154832
4.824772490047458,-0.2299483765749737,3.399951504587598
3.089265921689867,-0.5918499055657017,-1.2707704529843298
0.572595890735057,-0.16708034425400875,-3.9995157253015807
-0.41509738354016434,1.3921668054738845,3.301554068284915
3.0046425125262264,0.3791010027412176,-5.968632106150405
4.61718546287584,0.7789515174531321,-2.643708278730773
-0.5046191211584201,-0.9649468701835413,-1.1413466267770573
-0.6081983951285128,-0.020077550280907186,-4.185970930003977
1.1844232650665667,-0.7432190320713676,-0.6252834128868674
-0.43185282016261795,1.2068985053892627,-3.1410973084121165
-0.3480058112704487,-0.26246647595627115,1.5839312097992675
3.085601223611958,-0.9046886820427129,-2.580887223068766
0.13864028743147294,-0.5398254780279829,-0.5504917332370809
-0.5731754190933467,-1.093725274301172,0.05214188935323705
5.9115810985622925,0.7464207857434286,0.9773354585872802
0.5289243654309228,-0.5919155148762795,4.370758780709005
-4.53307352848845,1.063754141448217,-1.0152035073017824
3.2542345320007104,-0.07206525308197609,1.8257177089619585
-2.329542219857618,-1.2143278967016415,5.5418076089854225
0.656965980479157,-0.39465042639727743,-0.5722464516443448
3.675722463560337,0.11038779082685979,1.546934347176391
-3.2872786580103934,-0.18364642547992238,-5.2660777258612095
-3.8848802885707996,1.1061077837558093,4.429983897592276
5.604049584825871,-1.1614378052100651,-3.7621653237065886
-4.5994049077836285,-1.1986834689252321,-3.8423896198499516
2.0359132796065644,-1.0038888253824565,2.639697524140777
0.20252496083917748,1.0308713106948,-0.33318249288883806
2.9639003737983654,-1.2877399129514768,4.166831436476917
-4.499070392389063,-0.9357215883734814,0.9644176044769486
5.500687309181966,1.37089357176426,1.9661703610812067
2.45550567363232,-0.3594375530864542,-5.300883198135314
0.6477706547670596,0.9895353226402444,-4.230995412464068
2.38123595064304,-0.5228937609915815,0.11037508652689532
2.861592934867165,-1.4438800278427077,0.00577756904527682
-1.1502656794139483,0.25416947243958843,3.076250172817918
5.983046734724349,0.4992224776097234,-2.9168361103667513
3.3627760002502036,1.3544456026954754,5.108460194385696
3.050530638816978,-1.3858182831981418,-1.5281622066970497
0.5854071342618177,0.9147342196932855,3.552969254040155
-0.5997767579259587,0.527266486223855,-0.35227240797522263
-5.6591636658149715,-0.6094601614396965,0.06802189916001211
5.443981314303478,-1.0994119656201593,-2.391952832509796
4.006131610027827,0.8820658277585398,4.7481908982596455
-2.162002035125085,0.7209275486625795,-5.499451461982176
-2.4966881811818293,-0.2977986602480198,1.3826452126098427
4.373276416832828,0.6022536284822317,-3.4308015793508133
0.09335056873189984,1.4179290290137367,5.344041509923683
4.019468815479529,-0.937763842803164,5.534059692000664
-0.3247722395973982,0.24343961822900484,-0.22123909539205577
-3.008557054056166,-1.4565912746134848,2.275996523590253
-2.9652079818063037,1.199774156630724,1.6909264942010864
-5.15265695348487,-0.07899572317963122,4.16680370042236
-2.1402268124961408,-0.733944453573921,-5.792782813018366
0.3678831663831863,0.1627457022546588,-4.120791927321584
-0.4637975933656815,-1.4119131123759308,-2.76980365515018
-4.057784470307801,1.2677427327745785,3.52662505064745
1.7393848427933882,-1.0852886425279333,-3.3176253287312973
2.978243490772009,-0.6776191226843,3.9316371123965954
0.983468952502867,-1.4950742497622316,0.5465124904190031
2.21566759744033,0.26198236700922717,-2.4084389934622936
-2.779145558046278,0.3664318139891223,-2.7492834536481343
-0.5743907536487232,-0.6893809328496104,-0.5976934054635414
-4.243467567527338,0.550378113958518,1.2921530024684058
-1.679416766691796,0.230991068594933,-0.8537419840795142
2.0724553881182732,1.342978822548992,5.143629036997046
-2.625821532229943,1.3206622038855045,-3.4085091352021943
2.0700164302288044,-1.2337116248061724,0.6479910917369871
0.5859555426324796,-1.428824112711963,2.26365993456384
4.904726170751799,-1.4679094398115948,-4.685597346435318
2.953920383207727,0.12891284374643908,-1.6178390474244466
-4.502993135805735,0.9940197618317805,4.428894082124792
-3.291091509216495,-0.10145390604283078,1.0178765323415933
-1.379029570748175,0.9759100340624203,-3.1553190541519425
-3.9132767228981913,-1.4325939835844665,4.769374925490887
2.0621109609358257,1.0449539649509276,3.5322276480669235
-1.8279491758747088,0.06441913727628013,-4.615781224771613
2.9080074719243587,-0.23145302177826732,-0.9778124615374981
2.5207959897899705,0.8798967357538352,-1.2008156221325965
1.773856393890732,1.4967222833816058,0.3369007358152327
5.430096455110991,1.2773741045316438,0.27512610446189356
-3.8950391759569998,0.9068495802195873,1.4503574457745643
-5.457192956895491,1.4656683773626034,5.1277233277556995
3.7503303607918603,1.1889708194594846,1.4713560524667564
-4.514319583566756,-0.1920212398498542,-3.8651275533323037
1.4684429739264164,1.3093387552826248,3.7900264455978316
-2.621562203364499,-0.8628861159915303,4.321293114945501
-5.522471199460231,-0.8860543551823038,3.7368495191395876
1.893661828141707,1.0738016261665417,-5.485630175894753
4.327472672940479,-1.2105550989365212,-2.7689918710639065
-3.9239831051972547,1.116973125445873,-0.5235070706270637
3.834414177459678,-0.41481124110160694,-4.73336185877446
-2.948629150733429,-0.35317679874415786,1.5981084824952045
5.8592627692587484,-0.6359693820874815,-4.405768598894784
1.582766969864986,-0.8161890118582366,0.9115869278244828
-1.2324899914752514,-1.4145183278159217,-2.028672302726485
-4.128874860358474,-1.1262624084856159,0.5389341796330509
4.618899820103968,0.07442304236196629,4.668362648745223
0.9728022892843491,-0.9418459077471732,5.635156505273628
0.962433365101429,0.0721919413566452,2.1235484944694605
1.2771152123003127,-1.104452463877506,5.442774666045658
-2.8669713415033975,-0.8386540925391694,-4.399520360316247
-3.5112277556390814,-1.32337157249855,-1.7238626214245318
0.09865968807532877,-0.4432543272762799,5.347746615008504
0.7338662058858514,-1.1816191776256246,2.9040202669727737
5.565426680608152,0.7138722061726748,3.619430476616019
0.10864282027645533,-0.030264614414028834,4.796190186826502
-4.431081235761524,-1.3981976234675044,5.201011176141652
3.701892508822553,0.593513906426109,-4.874550576758246
-5.906106451327943,-0.9303017580526379,-4.284434125022649
-1.401579409153178,0.6425040001930133,1.2620190933847617
2.8355438671888002,0.44655614554959566,2.0016420683091116
-0.6196737422310425,-1.379638375111266,4.292872150707053
1.1922046949745067,1.4589173491675367,4.315757249835434
3.0573327396715246,1.0468820795145484,-4.230701248996674
-0.3927560351861974,0.8193861370689035,-4.060522689547859
3.810642110210434,-1.3704612077885443,3.57174166555442
3.6593383602594187,1.26500308096914,-0.5969061801745124
0.037040144573161626,0.4027978700412409,3.2850800832566005
-1.9541845566053349,-1.3046823964355845,4.369233010890325
0.12729917464073992,1.3206031689023443,-1.1043234663547876
-0.45140855237786326,0.27622138418452913,-3.158034380917974
-0.9115831540112733,-0.12461270499391164,0.28747734273385106
5.1709919092216765,-0.7963202284866566,0.6276290893823138
-3.323201418714533,0.9984562491998599,-2.749518746492232
1.2084316678623805,-0.17047120399483284,-2.265008230955281
